32.124573 33.120445 364.80872
32.124355 33.363865 364.80692
32.124138 33.607296 364.80518
32.10329 33.82889 364.56912
32.10307 34.072178 364.56732
32.102856 34.315475 364.56555
32.205467 34.535843 364.35086
32.20525 34.77899 364.34906
32.205032 35.022144 364.3473
32.204815 35.2653 364.3455
32.204594 35.50846 364.3437
32.204376 35.751625 364.34192
32.306858 35.970985 364.12747
32.30664 36.21401 364.12567
32.285706 36.433674 363.89044
32.285484 36.676556 363.88867
32.285263 36.91944 363.88687
32.285046 37.162334 363.88507
32.284824 37.405228 363.8833
32.284603 37.64813 363.88147
32.3869 37.866077 363.6676
32.386684 38.108837 363.6658
32.38646 38.351593 363.664
32.38624 38.59436 363.66223
32.386017 38.837128 363.6604
32.48819 39.054222 363.4468
32.492805 39.41518 363.43454
32.4926 39.657806 363.43274
32.492393 39.900433 363.43094
32.492188 40.143066 363.42914
32.491985 40.385704 363.42734
32.49178 40.62834 363.42554
32.491573 40.870987 363.42374
32.49137 41.113636 363.42197
32.491165 41.35629 363.42017
32.409348 41.652683 363.86343
32.40914 41.89564 363.8616
32.408943 42.138603 363.85983
32.306194 42.40935 364.07037
32.018215 42.763706 364.94168
31.412636 43.33055 366.47076
31.135302 44.599876 371.84988
30.938637 45.064903 372.54587
30.852823 45.373444 373.01184
30.7668 45.682766 373.47894
30.7666 45.932194 373.47717
30.7664 46.181625 373.47543
30.786415 46.46123 373.71933
30.786213 46.710823 373.71756
30.912426 46.95947 373.73724
30.912228 47.209072 373.73553
30.912024 47.458675 373.7338
30.91182 47.708282 373.73203
30.91162 47.957893 373.73032
30.99711 48.14409 373.25906
31.082384 48.32981 372.78897
31.082178 48.57881 372.7872
31.081976 48.82781 372.78546
31.272522 48.97985 372.09415
31.272318 49.228394 372.09238
31.356972 49.4122 371.6252
31.447132 49.716145 371.14847
31.446943 49.96407 371.14673
31.53118 50.146503 370.68185
31.615202 50.32849 370.21817
31.615011 50.575813 370.21643
31.614822 50.823135 370.21466
31.803074 50.970413 369.53284
31.80288 51.217278 369.53104
31.78203 51.431263 369.28888
31.781837 51.67799 369.2871
31.761011 51.891563 369.0452
31.760817 52.13815 369.04343
31.760624 52.384727 369.04166
31.86464 52.596714 368.8215
31.864445 52.843147 368.81973
31.780678 53.15842 369.27652
31.780485 53.405174 369.27472
31.571411 53.722607 369.7111
31.591766 54.004173 369.95035
31.402557 54.35775 370.63034
31.422852 54.640423 370.87076
31.33808 54.959743 371.33267
31.358368 55.243324 371.57404
31.399199 55.562904 372.05933
31.293638 55.848495 372.27994
31.293451 56.097298 372.2782
31.39864 56.30883 372.05405
31.39845 56.55748 372.05228
31.398268 56.806137 372.05054
31.398079 57.054794 372.04877
31.397892 57.303455 372.04703
31.397709 57.552124 372.04523
31.397522 57.800797 372.0435
31.397337 58.049473 372.04172
31.397148 58.298157 372.03998
31.396967 58.54684 372.0382
31.39678 58.79553 372.03644
31.396595 59.044224 372.03467
31.50164 59.25379 371.81085
31.50145 59.502335 371.80905
31.501265 59.75088 371.80728
31.50108 59.99944 371.80554
31.500893 60.247993 371.80377
31.605803 60.456688 371.5802
31.605618 60.705097 371.57846
31.60543 60.953506 371.5767
31.605244 61.201923 371.57492
31.71002 61.409893 371.35162
31.709833 61.658157 371.34988
31.709644 61.90643 371.3481
31.814293 62.113834 371.1251
31.814106 62.361954 371.12335
31.897839 62.529106 370.65836
31.897648 62.776924 370.6566
32.001987 62.98341 370.43445
32.168648 63.068073 369.5107
32.251568 63.233627 369.04968
32.41698 63.317368 368.1328
32.520294 63.522114 367.91373
32.69133 63.723816 366.99234
32.67008 63.928932 366.7532
32.85457 64.050674 366.08386
32.83326 64.25509 365.84586
33.01699 64.37594 365.17978
32.99562 64.57966 364.94287
33.178604 64.699615 364.28012
33.157177 64.90265 364.0443
33.258926 65.10417 363.8302
33.237476 65.30672 363.5949
33.339046 65.50775 363.38132
33.317562 65.7098 363.1465
33.44031 65.951416 363.16617
31.01832 -59.01968 357.6622
31.018238 -58.782627 357.66052
31.100382 -58.478287 357.23056
31.100298 -58.24152 357.22885
31.100212 -58.004734 357.22717
31.221066 -57.766438 357.24478
31.20151 -57.497395 357.01965
31.20142 -57.260746 357.01797
31.201326 -57.024094 357.01624
31.201237 -56.78744 357.01456
31.181696 -56.51912 356.78973
31.1816 -56.282593 356.788
31.28281 -56.013237 356.58273
31.282717 -55.77685 356.58102
31.282614 -55.540455 356.5793
31.383705 -55.2717 356.3743
31.383606 -55.035446 356.3726
31.383505 -54.79919 356.37085
31.383402 -54.562923 356.36917
31.383295 -54.326653 356.36743
31.484266 -54.058784 356.16266
31.48416 -53.82265 356.16092
31.48405 -53.58651 356.15924
31.483942 -53.350365 356.1575
31.483831 -53.11422 356.1558
31.483723 -52.87807 356.15405
31.48361 -52.641914 356.15234
31.483498 -52.40576 356.15063
31.401876 -52.22915 356.57465
31.401764 -51.992702 356.57294
31.40165 -51.756252 356.57123
31.401533 -51.519794 356.5695
31.401415 -51.283333 356.56775
31.401297 -51.04687 356.56604
31.401176 -50.810402 356.5643
31.401058 -50.57392 356.5626
31.502058 -50.308125 356.35757
31.52159 -50.099655 356.57858
31.52147 -49.863182 356.57687
31.521347 -49.6267 356.57516
31.622278 -49.36146 356.37015
31.622152 -49.12511 356.3684
31.60016 -48.74375 356.13217
31.619762 -48.534485 356.35297
31.61965 -48.29813 356.35126
31.619535 -48.061775 356.34952
31.619423 -47.825405 356.3478
31.61931 -47.58905 356.3461
31.619194 -47.352676 356.3444
31.619078 -47.1163 356.34265
31.61896 -46.87992 356.34094
31.638575 -46.669407 356.56192
31.618721 -46.40715 356.3375
31.6186 -46.17076 356.33575
31.840082 -45.906544 356.1504
31.839958 -45.67029 356.14868
31.839836 -45.43404 356.14694
31.839712 -45.197784 356.14523
31.839586 -44.96152 356.1435
31.940218 -44.699383 355.93896
31.920197 -44.43872 355.71533
31.920067 -44.202732 355.7136
32.020527 -43.941357 355.50955
32.020393 -43.705498 355.5078
32.020264 -43.469635 355.5061
32.02013 -43.233772 355.50436
32.019997 -42.997902 355.50266
32.01986 -42.762028 355.50092
32.019726 -42.526154 355.4992
32.120064 -42.265923 355.2954
32.119926 -42.03018 355.2937
32.099796 -41.771492 355.07068
32.099655 -41.535877 355.06894
32.079548 -41.27762 354.84622
32.079407 -41.042133 354.8445
32.079258 -40.806644 354.84274
32.09908 -40.593388 355.062
31.998508 -40.380924 355.26205
32.01831 -40.167164 355.4819
32.01816 -39.931236 355.48016
32.018017 -39.695316 355.47845
32.017864 -39.459385 355.47668
31.917128 -39.245956 355.67722
31.916979 -39.00988 355.6755
31.855888 -38.838604 356.3212
31.855736 -38.602093 356.31943
31.8755 -38.38662 356.54056
31.99619 -38.148964 356.55835
31.895136 -37.934093 356.7602
31.914948 -37.717964 356.9818
31.934776 -37.501575 357.20367
31.83351 -37.28591 357.4063
31.934473 -37.0274 357.20023
31.93432 -36.790302 357.19852
31.934164 -36.553207 357.1968
31.93401 -36.316105 357.19507
31.933851 -36.078995 357.19333
31.933693 -35.841885 357.1916
31.933535 -35.60477 357.18988
31.933376 -35.367653 357.18817
31.933214 -35.130527 357.18643
31.933054 -34.893402 357.1847
31.93289 -34.65627 357.18295
31.932732 -34.419136 357.18124
31.932564 -34.181995 357.1795
31.95242 -33.96335 357.40167
31.952257 -33.726067 357.39996
31.95209 -33.488777 357.39825
31.950985 -33.13357 357.38477
31.849678 -32.91503 357.5876
31.849525 -32.67759 357.58588
31.849377 -32.440144 357.58414
31.849222 -32.202694 357.5824
31.849072 -31.965237 357.58066
32.051113 -31.691736 357.1701
32.05096 -31.454563 357.1684
32.050804 -31.217384 357.16666
32.050648 -30.980204 357.16492
32.050488 -30.743017 357.16318
32.05033 -30.505827 357.16144
32.05017 -30.268635 357.15973
32.070114 -30.047644 357.38193
32.069954 -29.810303 357.38022
32.069794 -29.572958 357.37845
32.06963 -29.335608 357.37674
32.069466 -29.098255 357.375
32.08944 -28.876434 357.59753
32.089275 -28.638935 357.5958
32.08911 -28.401428 357.59406
32.088943 -28.163918 357.59232
32.088776 -27.926407 357.59058
32.088608 -27.688889 357.58884
32.088444 -27.45137 357.58713
32.088276 -27.213844 357.5854
32.088104 -26.976315 357.58365
32.087933 -26.738781 357.5819
32.087765 -26.501242 357.58017
32.087593 -26.263702 357.57846
32.087418 -26.026157 357.57672
32.087246 -25.788607 357.57495
32.08707 -25.551054 357.5732
32.086895 -25.313498 357.57147
32.086723 -25.075933 357.56973
32.106712 -24.851551 357.79257
32.106533 -24.613842 357.7908
32.106358 -24.37613 357.7891
32.10618 -24.13841 357.78732
32.106003 -23.900688 357.78558
32.10582 -23.662962 357.7838
32.125835 -23.437593 358.00693
32.125652 -23.19972 358.00522
32.12547 -22.961843 358.00348
32.12529 -22.72396 358.00174
32.125107 -22.486076 358.0
32.124924 -22.248186 357.99826
32.12474 -22.010294 357.99652
32.144775 -21.783789 358.21985
32.144585 -21.545746 358.21808
32.04313 -21.319399 358.42194
32.042942 -21.081202 358.42017
32.042755 -20.843002 358.41843
32.042564 -20.604797 358.41666
32.062572 -20.37717 358.6406
32.062386 -20.138819 358.63885
32.0622 -19.900463 358.63715
32.062008 -19.662102 358.63538
32.08204 -19.43377 358.8596
32.08185 -19.19526 358.85785
32.081657 -18.956745 358.8561
32.081463 -18.718227 358.85434
32.081272 -18.479708 358.85263
32.081078 -18.24118 358.85086
32.080887 -18.002653 358.84912
32.080685 -17.764116 358.84735
32.12101 -17.543425 359.2983
32.120815 -17.304602 359.29657
32.12062 -17.065775 359.29483
32.120422 -16.826944 359.2931
31.916939 -16.60578 359.70523
31.917145 -16.248344 359.692
31.93716 -16.01726 359.91757
31.936981 -15.777983 359.91586
31.957018 -15.546472 360.14163
31.956837 -15.307044 360.1399
31.956657 -15.067613 360.13818
31.956474 -14.828176 360.13644
31.854382 -14.59635 360.34253
31.874397 -14.363842 360.56894
31.874212 -14.124104 360.5672
31.874031 -13.88436 360.5655
31.873844 -13.644614 360.56372
31.893879 -13.411386 360.79034
31.913933 -13.1778755 361.0173
31.811571 -12.944447 361.22446
31.709087 -12.710724 361.43185
31.708902 -12.470376 361.4301
31.728876 -12.235863 361.6578
31.728691 -11.995362 361.6561
31.646173 -11.766322 362.09406
31.666145 -11.5309515 362.32263
31.665958 -11.290005 362.3209
31.685955 -11.054203 362.54974
31.583029 -10.818426 362.75873
31.582844 -10.577173 362.75702
31.520021 -10.350426 363.42932
31.416752 -10.113626 363.6394
31.333406 -9.880995 364.0822
31.33322 -9.638841 364.08047
31.249678 -9.405338 364.52444
31.165924 -9.171258 364.9694
31.06202 -8.932682 365.18134
31.081789 -8.693541 365.41382
30.893564 -8.461898 366.07574
30.91327 -8.221876 366.30936
30.828703 -7.985168 366.7588
30.82852 -7.7411923 366.75705
30.848217 -7.5002823 366.99152
30.848036 -7.2561517 366.9898
30.76323 -7.0178 367.4409
30.763044 -6.7733593 367.43918
30.782738 -6.531404 367.6745
30.782553 -6.2868066 367.6728
30.697514 -6.046802 368.1256
30.697327 -5.801895 368.1239
30.697142 -5.556983 368.1222
30.611895 -5.315766 368.57614
30.61171 -5.0705423 368.57443
30.631357 -4.8267775 368.81116
30.631174 -4.5813975 368.80945
30.630985 -4.336012 368.80774
30.6308 -4.0906224 368.80603
30.63061 -3.8452287 368.80432
30.630424 -3.5998306 368.8026
30.650097 -3.354999 369.03967
30.669792 -3.1098657 369.27695
30.669603 -2.8641565 369.2753
30.669413 -2.618443 369.27356
30.669222 -2.3727252 369.27188
30.66903 -2.1270032 369.27014
30.563631 -1.8810561 369.48737
30.583298 -1.6346954 369.7253
30.583107 -1.3886555 369.7236
30.497353 -1.141147 370.18158
30.49716 -0.8947929 370.17987
30.49697 -0.64843464 370.1782
30.496777 -0.4020717 370.17645
30.516432 -0.15432711 370.41525
30.516237 0.09219461 370.41354
30.516043 0.3387206 370.41183
30.410233 0.5870358 370.63046
30.429857 0.83571064 370.86987
30.449503 1.0846932 371.10956
30.449308 1.3316944 371.10785
30.449112 1.5786997 371.10617
30.448917 1.8257092 371.10446
30.34287 2.0754561 371.3239
30.236704 2.325524 371.54367
30.27604 2.5789733 372.0269
30.275845 2.826617 372.02518
30.275648 3.0742655 372.0235
30.275455 3.3219182 372.02182
30.16905 3.5732677 372.2424
30.1886 3.8249128 372.48392
30.208166 4.07687 372.72568
30.207975 4.3250027 372.724
30.207777 4.5731387 372.7223
30.101133 4.825777 372.94376
29.994368 5.078742 373.16553
30.013851 5.3319707 373.40826
30.033358 5.5855155 373.65128
30.033161 5.8342967 373.6496
30.032963 6.0830817 373.64786
29.925957 6.337346 373.8705
29.925758 6.5862994 373.86877
29.945234 6.840959 374.11246
29.964727 7.0959353 374.35635
29.964529 7.345209 374.35468
29.857286 7.600781 374.5782
29.876747 7.856561 374.82272
29.896233 8.112663 375.06757
29.896032 8.362422 375.0659
29.78855 8.619144 375.29028
29.788351 8.869074 375.2886
29.807802 9.1261425 375.53406
29.700132 9.383693 375.75903
29.719547 9.641415 376.00513
29.719347 9.891831 376.00342
29.719149 10.142252 376.00174
29.73859 10.400618 376.24814
29.73839 10.651202 376.24643
29.738192 10.901793 376.24475
29.73799 11.152387 376.24307
29.737787 11.402985 376.24136
29.737587 11.653588 376.2397
29.757046 11.913077 376.4864
29.756842 12.163845 376.48468
29.776333 12.423823 376.73175
29.776127 12.674755 376.73004
29.775927 12.925693 376.72836
29.775723 13.176633 376.72668
29.775517 13.427579 376.72498
29.775316 13.67853 376.72333
29.882795 13.919078 376.49374
29.882587 14.169876 376.49203
29.88238 14.420676 376.49033
29.882177 14.671484 376.48868
29.969711 14.900518 376.01123
29.969503 15.151015 376.00952
29.989103 15.412568 376.256
29.969086 15.652026 376.00616
29.968874 15.902536 376.00446
29.968666 16.153053 376.00275
30.059101 16.50267 375.51492
30.058908 16.752876 375.5132
30.058716 17.003082 375.51154
30.252787 17.21616 374.8107
30.25259 17.465902 374.80902
30.339273 17.690456 374.3358
30.319134 17.927343 374.08835
30.405558 18.150908 373.61685
30.87554 18.296026 371.76852
31.381714 18.465145 370.41965
31.425095 18.66013 369.47748
31.57259 18.84087 368.32202
31.656115 19.059862 367.8649
31.635431 19.291847 367.6256
31.635214 19.536844 367.62384
31.738998 19.76801 367.40546
31.738781 20.012863 367.40372
31.73856 20.257719 367.40198
31.738342 20.502579 367.40027
31.717625 20.733427 367.16147
31.821224 20.96358 366.94363
31.821005 21.20815 366.9419
31.924479 21.437868 366.7243
31.92426 21.682295 366.7226
31.903446 21.912016 366.4846
31.903223 22.156303 366.48285
31.88244 22.38561 366.24518
31.98568 22.614193 366.0284
32.051064 22.93132 365.33102
32.153965 23.158998 365.1154
32.236034 23.370888 364.66602
32.235825 23.613997 364.66425
32.235615 23.857107 364.6625
32.317482 24.067896 364.21423
32.31727 24.310719 364.21246
32.317055 24.553543 364.2107
32.316845 24.796375 364.20895
32.316628 25.039207 364.20718
32.316418 25.28205 364.20544
32.316204 25.524893 364.20367
32.31599 25.767738 364.2019
32.315777 26.01059 364.20016
32.315563 26.253443 364.1984
32.417976 26.478416 363.98416
32.417763 26.721127 363.9824
32.417545 26.963842 363.98062
32.438118 27.224356 364.21213
32.4379 27.467226 364.21036
32.437683 27.7101 364.2086
32.43747 27.952978 364.20685
32.437252 28.195864 364.20508
32.43704 28.43875 364.2033
32.539368 28.662392 363.98904
32.51831 28.886349 363.7543
32.518093 29.128948 363.75256
32.41538 29.391233 363.96298
32.41516 29.633995 363.96124
32.414944 29.876762 363.95947
32.435513 30.139076 364.191
32.435295 30.381998 364.18924
32.435074 30.62492 364.18744
32.35296 30.908518 364.63235
32.37352 31.17195 364.8647
32.373302 31.415329 364.8629
32.373085 31.658714 364.86118
32.372868 31.902105 364.85944
32.47541 32.124054 364.64435
32.47519 32.3673 364.64258
32.474968 32.610546 364.6408
32.474747 32.8538 364.63904
32.47453 33.09706 364.6373
32.474308 33.340324 364.63553
32.474087 33.583588 364.63376
32.47387 33.826862 364.63202
32.473648 34.070137 364.63025
32.473427 34.313416 364.62848
32.473206 34.556698 364.6267
32.575607 34.7769 364.4119
32.575386 35.02004 364.41016
32.575165 35.263184 364.4084
32.574944 35.50633 364.40662
32.574722 35.749485 364.40485
32.677 35.96882 364.1903
32.676773 36.21183 364.18854
32.676548 36.45484 364.18677
32.676323 36.69786 364.185
32.6761 36.940884 364.18326
32.67588 37.183907 364.18152
32.778027 37.40224 363.96722
32.7778 37.645126 363.96545
32.777573 37.888012 363.96368
32.777348 38.1309 363.9619
32.78188 38.492256 363.94965
32.78167 38.735146 363.94785
32.781464 38.978046 363.9461
32.76027 39.195957 363.71124
32.76006 39.438717 363.70947
32.759853 39.681477 363.70773
32.861828 39.89803 363.49402
32.86162 40.140648 363.49225
32.861412 40.383274 363.49045
32.96326 40.599262 363.277
32.860992 40.868534 363.4869
32.860783 41.111168 363.48514
32.860577 41.35381 363.4834
32.860367 41.596455 363.48163
32.757984 41.866524 363.69174
32.676422 42.16372 364.13556
32.573753 42.434647 364.3465
32.389072 42.761177 365.00543
32.203728 43.088917 365.66684
31.322554 44.685738 372.60248
31.21118 45.09231 372.833
31.12563 45.401066 373.29956
31.14586 45.67998 373.54315
31.145657 45.929394 373.5414
31.14545 46.178814 373.53967
31.251099 46.397163 373.31396
31.271402 46.676693 373.55746
31.271194 46.926117 373.55573
31.291523 47.20616 373.7996
31.270779 47.424984 373.55228
31.270575 47.674423 373.55057
31.376144 47.891838 373.32483
31.375935 48.14113 373.32312
31.460756 48.326855 372.85303
31.460546 48.575836 372.8513
31.565796 48.792282 372.62643
31.635199 49.066082 371.90384
31.635008 49.314453 371.9021
31.739904 49.52989 371.6784
31.823898 49.713074 371.21237
31.802965 49.92891 370.96838
31.907495 50.14343 370.74582
31.907299 50.391045 370.74408
31.990873 50.57272 370.28033
32.074234 50.75395 369.81775
32.074036 51.000954 369.81604
32.053 51.215202 369.57364
32.156986 51.42814 369.3528
32.260845 51.64081 369.13223
32.260643 51.887367 369.1305
32.260445 52.133938 369.12875
32.23933 52.347115 368.8873
32.239132 52.59354 368.88553
32.134933 52.87474 369.10233
32.134735 53.121323 369.10056
32.13454 53.36792 369.09882
32.05103 53.684025 369.55615
31.84213 54.00203 369.99335
31.862663 54.283924 370.23288
31.79929 54.637146 370.93527
31.840601 54.955322 371.41864
31.756205 55.275414 371.88177
31.756016 55.523888 371.88007
31.77658 55.80814 372.12195
31.776388 56.056774 372.1202
31.7762 56.30541 372.11847
31.796783 56.590324 372.3606
31.79659 56.839123 372.35883
31.796398 57.08792 372.35712
31.88046 57.262115 371.88928
31.880268 57.51062 371.88757
31.880077 57.759125 371.88583
31.879883 58.00762 371.8841
31.87969 58.256138 371.8824
31.879496 58.50465 371.8806
31.879307 58.753174 371.8789
31.879114 59.0017 371.87717
31.87892 59.25022 371.8754
31.878729 59.498753 371.87366
31.878538 59.747288 371.87192
31.878345 59.99583 371.87018
31.878153 60.244377 371.86844
31.877964 60.492928 371.86673
31.877773 60.741478 371.86496
31.87758 60.990032 371.86322
31.982271 61.198242 371.63953
31.98208 61.44666 371.63782
31.981888 61.69506 371.63605
31.981697 61.943485 371.63434
32.08625 62.15097 371.41095
32.19068 62.3582 371.18784
32.27396 62.525337 370.72275
32.37808 62.73194 370.50043
32.460976 62.89832 370.03717
32.56479 63.104305 369.81573
32.73656 63.308014 368.88513
32.90073 63.391525 367.96936
32.858074 63.557247 367.49106
33.063904 63.719986 367.05643
33.123844 63.84346 366.3648
33.226254 64.04684 366.14783
33.307125 64.20966 365.69522
33.264187 64.37338 365.22247
33.468273 64.534134 364.79333
33.548546 64.695786 364.3441
33.52688 64.89882 364.10828
33.628418 65.10031 363.89404
33.60673 65.30287 363.65887
33.708103 65.50388 363.44516
33.70791 65.746895 363.4434
33.80915 65.94751 363.22995
31.27999 -59.04973 357.9247
31.381472 -58.777927 357.71808
31.482836 -58.506454 357.5117
31.381311 -58.30386 357.71472
31.38123 -58.066814 357.71304
31.482592 -57.79577 357.50665
31.46288 -57.526585 357.28143
31.462793 -57.289818 357.27975
31.462704 -57.053047 357.27808
31.482248 -56.848125 357.49994
31.482162 -56.611206 357.4983
31.48207 -56.374283 357.4966
31.684523 -56.071484 357.08624
31.664692 -55.80361 356.8615
31.664597 -55.567104 356.85983
31.745773 -55.267303 356.43192
31.745676 -55.031067 356.4302
31.745577 -54.794823 356.4285
31.745478 -54.55858 356.42685
31.846252 -54.29058 356.22192
31.82635 -54.024353 355.99823
31.826244 -53.78838 355.99655
31.826141 -53.552402 355.99484
31.826033 -53.316414 355.99316
31.845734 -53.11 356.2135
31.865458 -52.90334 356.4341
31.865353 -52.667072 356.43246
31.865244 -52.430798 356.4308
31.865131 -52.19451 356.42905
31.86502 -51.958233 356.42737
31.86491 -51.721943 356.4257
31.763865 -51.51571 356.6274
31.76375 -51.27927 356.62573
31.78345 -51.071262 356.84686
31.884312 -50.805016 356.64148
31.884195 -50.56857 356.6398
31.884077 -50.332123 356.63812
31.78298 -50.124897 356.8401
31.903728 -49.88696 356.8576
31.883717 -49.622753 356.63303
31.883596 -49.386284 356.63132
31.883472 -49.149815 356.62964
31.883348 -48.913338 356.62796
31.883223 -48.676857 356.62622
31.883097 -48.440376 356.62454
32.08458 -48.14785 356.21622
32.084446 -47.91164 356.2145
32.10432 -47.701878 356.4352
32.104195 -47.46553 356.4335
32.102024 -47.111332 356.41986
32.101906 -46.87498 356.41818
32.10179 -46.63863 356.41647
32.101673 -46.402264 356.41476
32.10156 -46.1659 356.4131
32.10144 -45.929535 356.4114
32.101322 -45.69316 356.4097
32.1012 -45.456787 356.40802
32.181698 -45.16924 355.981
32.181572 -44.933132 355.97928
32.181446 -44.697025 355.97754
32.18132 -44.460915 355.97586
32.281708 -44.199234 355.77148
32.28158 -43.96326 355.7698
32.281452 -43.72728 355.76813
32.281322 -43.491295 355.7664
32.28119 -43.25531 355.7647
32.361313 -42.97086 355.33917
32.36118 -42.735146 355.3375
32.361042 -42.499424 355.33575
32.36091 -42.263702 355.33405
32.360767 -42.027973 355.33234
32.360634 -41.792244 355.33066
32.360493 -41.556507 355.32895
32.36035 -41.320763 355.3272
32.36021 -41.08502 355.32553
32.36007 -40.84927 355.3238
32.35993 -40.61352 355.32208
32.359783 -40.377758 355.32037
32.259293 -40.165062 355.52078
32.29939 -39.97296 355.96277
32.29924 -39.73677 355.96106
32.299095 -39.50058 355.95935
32.29895 -39.264385 355.95764
32.2988 -39.028187 355.95593
32.33899 -38.83451 356.39893
32.238186 -38.620216 356.60065
32.238037 -38.383583 356.5989
32.37897 -38.16684 356.8395
32.27807 -37.951885 357.04178
32.27792 -37.714966 357.04007
32.27777 -37.47804 357.03836
32.176746 -37.262512 357.24084
32.176598 -37.025436 357.23917
32.176445 -36.788353 357.23743
32.297363 -36.55029 357.2551
32.29721 -36.313213 357.25342
32.29706 -36.076122 357.25168
32.296898 -35.83903 357.24997
32.29674 -35.601936 357.2483
32.296585 -35.364838 357.24658
32.19551 -35.147854 357.4493
32.29627 -34.890625 357.24316
32.19519 -34.673347 357.4459
32.19503 -34.436085 357.44415
32.194866 -34.198822 357.44244
32.29562 -33.94215 357.23633
32.295456 -33.705025 357.23462
32.29529 -33.467896 357.2329
32.295124 -33.230755 357.2312
32.294956 -32.993614 357.2295
32.315033 -32.774265 357.45163
32.31397 -32.41912 357.4382
32.31382 -32.18183 357.43652
32.313667 -31.944542 357.43478
32.313515 -31.707245 357.43307
32.313362 -31.469948 357.43137
32.41405 -31.214918 357.22528
32.4139 -30.977758 357.22357
32.434063 -30.757208 357.44574
32.433907 -30.5199 357.44403
32.433746 -30.282583 357.44232
32.43359 -30.045263 357.4406
32.43343 -29.807943 357.4389
32.43327 -29.570618 357.4372
32.43311 -29.333286 357.4355
32.432945 -29.095955 357.43378
32.432785 -28.858616 357.43207
32.432625 -28.621273 357.4304
32.432457 -28.383924 357.42865
32.432293 -28.146578 357.42694
32.432125 -27.90922 357.4252
32.43196 -27.671862 357.42352
32.431793 -27.4345 357.42178
32.431625 -27.19713 357.4201
32.431454 -26.959759 357.41833
32.431286 -26.722383 357.41663
32.431118 -26.485004 357.41492
32.4513 -26.261614 357.6374
32.451126 -26.024086 357.63565
32.450954 -25.786554 357.63394
32.471165 -25.562613 357.8567
32.47099 -25.324936 357.855
32.470818 -25.087252 357.85327
32.470642 -24.849566 357.85156
32.470467 -24.611876 357.84985
32.47029 -24.37418 357.8481
32.47011 -24.136482 357.8464
32.469936 -23.898775 357.84467
32.469757 -23.661072 357.84296
32.469578 -23.423359 357.84125
32.48981 -23.197855 358.0643
32.489624 -22.959997 358.06253
32.489445 -22.722134 358.06082
32.48926 -22.484266 358.0591
32.48908 -22.246395 358.05737
32.4889 -22.008522 358.0557
32.488712 -21.770641 358.054
32.48853 -21.532755 358.05225
32.50878 -21.305977 358.27557
32.508595 -21.067945 358.27386
32.50841 -20.829912 358.27216
32.50822 -20.591871 358.27042
32.528496 -20.364386 358.494
32.52831 -20.1262 358.49228
32.52812 -19.888004 358.49054
32.527927 -19.649809 358.48883
32.52774 -19.41161 358.48712
32.527546 -19.173405 358.48538
32.527355 -18.935196 358.48367
32.527164 -18.696983 358.48193
32.425846 -18.468727 358.68613
32.466557 -18.249016 359.13638
32.466366 -18.010365 359.13467
32.466175 -17.77171 359.13293
32.465977 -17.533047 359.13123
32.465782 -17.294382 359.12952
32.36425 -17.06483 359.33447
32.36405 -16.826012 359.33273
32.384304 -16.59556 359.55774
32.3841 -16.35659 359.556
32.383904 -16.117617 359.5543
32.30262 -15.895007 359.98694
32.302868 -15.537425 359.9738
32.30269 -15.298156 359.97202
32.322945 -15.066368 360.1978
32.322765 -14.826952 360.19614
32.322582 -14.587528 360.19437
32.3224 -14.348101 360.1927
32.34268 -14.115597 360.4187
32.342495 -13.8760195 360.417
32.26099 -13.650135 360.8518
32.15888 -13.417165 361.05884
32.15869 -13.177136 361.0571
32.15851 -12.937105 361.0554
32.158325 -12.697069 361.0537
32.17855 -12.462995 361.28082
32.1988 -12.228637 361.50824
32.09647 -11.994341 361.71606
32.116688 -11.759412 361.944
32.1165 -11.518777 361.9423
32.116314 -11.278141 361.94058
32.034195 -11.048096 362.37918
32.054405 -10.812159 362.60788
31.972063 -10.5811205 363.04813
31.869173 -10.344777 363.2578
31.88933 -10.107832 363.48764
31.786266 -9.870896 363.69788
31.8064 -9.633373 363.9283
31.62023 -9.404495 364.58472
31.620043 -9.162055 364.583
31.556957 -8.9316025 365.2619
31.453207 -8.692748 365.47427
31.369482 -8.457225 365.92157
31.369297 -8.213873 365.9199
31.285366 -7.977463 366.36823
31.305326 -7.7370124 366.60202
31.221163 -7.4995723 367.0521
31.136797 -7.261543 367.5033
31.136612 -7.0171237 367.50162
31.15653 -6.7753367 367.73682
31.156345 -6.5307612 367.7351
31.071743 -6.29108 368.18802
31.091654 -6.048394 368.42404
31.071377 -5.801305 368.18466
31.091288 -5.5583143 368.42072
31.091099 -5.3132668 368.419
31.111038 -5.0698247 368.65543
31.110851 -4.8246202 368.65375
31.11066 -4.579412 368.65207
31.110477 -4.3341994 368.65042
31.005516 -4.090154 368.86694
31.005325 -3.8447783 368.86523
30.920279 -3.6009817 369.32092
30.920092 -3.3552928 369.31924
30.93996 -3.110022 369.5568
30.939772 -2.8641753 369.55508
30.939583 -2.6183245 369.55344
30.939392 -2.3724687 369.55173
30.939201 -2.126609 369.55005
30.939009 -1.8807452 369.54837
30.958906 -1.6344022 369.78625
30.978823 -1.387755 370.02432
30.97863 -1.1415786 370.02264
30.978437 -0.89539796 370.021
30.873016 -0.64821136 370.23923
30.76747 -0.40070695 370.45767
30.787308 -0.1528222 370.6968
30.787111 0.09383834 370.6951
30.786919 0.34050316 370.6934
30.786724 0.5871723 370.6917
30.806578 0.8358286 370.93103
30.826458 1.084793 371.1707
30.720627 1.3340399 371.39032
30.720432 1.5811847 371.38864
30.720234 1.8283337 371.38696
30.720037 2.0754876 371.38528
30.719841 2.3226452 371.3836
30.759756 2.5759077 371.86603
30.54769 2.8298147 372.309
30.547493 3.0776033 372.3073
30.547297 3.3253965 372.30563
30.5471 3.5731938 372.30396
30.566887 3.8248196 372.5454
30.46051 4.0767965 372.76672
30.460312 4.3249173 372.765
30.480068 4.577333 373.0071
30.47987 4.8256154 373.00543
30.499638 5.0785017 373.24774
30.39303 5.331773 373.46997
30.392832 5.5803795 373.4683
30.30598 5.83922 373.9357
30.30578 6.088147 373.93402
30.305582 6.3370786 373.93234
30.325294 6.5915604 374.17593
30.238194 6.8521757 374.64514
30.237995 7.101587 374.64343
30.237795 7.3510036 374.64178
30.257494 7.6066046 374.88623
30.170145 7.8690066 375.35724
30.169947 8.118905 375.35556
30.169748 8.368808 375.3539
30.169548 8.618714 375.35223
30.169346 8.868625 375.35056
30.189034 9.125673 375.59592
30.10144 9.390515 376.0688
30.10124 9.64091 376.06714
30.101038 9.891311 376.06546
30.10084 10.141714 376.0638
30.120516 10.400057 376.3101
30.120314 10.650625 376.30844
30.12011 10.901198 376.30676
30.11991 11.151775 376.3051
30.119703 11.402356 376.3034
30.139406 11.661665 376.55008
30.159128 11.921298 376.79697
30.158922 12.172203 376.7953
30.15872 12.423114 376.79364
30.158514 12.674029 376.792
30.15831 12.924951 376.79034
30.158106 13.175874 376.78867
30.1579 13.426803 376.78702
30.265162 13.667489 376.5573
30.264954 13.918265 376.55566
30.264746 14.169047 376.55402
30.37187 14.409111 376.3246
30.35162 14.649167 376.07495
30.35141 14.899645 376.0733
30.351202 15.1501255 376.07166
30.350986 15.400611 376.06995
30.350779 15.651102 376.0683
30.350565 15.901597 376.06665
30.440506 16.25148 375.57874
30.440311 16.50166 375.57706
30.440119 16.751848 375.5754
30.419868 16.99004 375.3266
30.52656 17.227583 375.09875
30.506268 17.465187 374.85046
30.61277 17.702135 374.62317
30.678806 17.913721 373.90518
30.744576 18.124516 373.18976
31.673996 18.242783 370.94434
31.946579 18.425087 369.80072
31.988487 18.619804 368.86212
31.946865 18.839714 368.38354
32.029953 19.058697 367.92645
32.02973 19.303823 367.9247
32.00881 19.53565 367.68546
32.029293 19.794086 367.92133
32.112164 20.011635 367.46524
32.11194 20.256475 367.46353
32.11172 20.50132 367.46182
32.215168 20.731731 367.2436
32.19416 20.962294 367.00522
32.19394 21.20685 367.0035
32.17295 21.43699 366.76538
32.17273 21.681404 366.7636
32.172504 21.925825 366.76193
32.275715 22.154947 366.54453
32.36145 22.488274 366.08084
32.340424 22.7171 365.84387
32.443295 22.945166 365.62762
32.504253 23.142187 364.9429
32.60677 23.369438 364.72772
32.709167 23.596409 364.51276
32.687992 23.823599 364.27765
32.687775 24.066402 364.2759
32.68756 24.309212 364.27417
32.687344 24.552025 364.27243
32.68713 24.794842 364.27072
32.686913 25.037659 364.26895
32.6867 25.280485 364.26724
32.68648 25.523314 364.2655
32.686264 25.766146 364.26376
32.788475 25.991392 364.0494
32.788254 26.23408 364.04767
32.80905 26.494114 364.27908
32.808834 26.73696 364.27734
32.808617 26.979809 364.27563
32.808395 27.222658 364.2739
32.80818 27.465517 364.2722
32.80796 27.708376 364.27045
32.807743 27.951242 364.2687
32.80752 28.19411 364.267
32.78629 28.418474 364.03204
32.786068 28.661205 364.03033
32.88814 28.884558 363.81622
32.88792 29.127144 363.81445
32.887695 29.369736 363.8127
32.785183 29.63217 364.02332
32.805977 29.894312 364.25482
32.80576 30.137215 364.25308
32.72406 30.420183 364.69797
32.723843 30.663393 364.69623
32.826126 30.885935 364.48132
32.825905 31.129002 364.47958
32.84675 31.392387 364.71167
32.743965 31.656754 364.92337
32.743748 31.90013 364.92163
32.764557 32.16431 365.1542
32.76433 32.40784 365.15247
32.76411 32.651375 365.15073
32.76389 32.894913 365.14896
32.742638 33.11707 364.91293
32.844963 33.338257 364.69772
32.844738 33.581512 364.696
32.94694 33.80228 364.48108
32.946716 34.04539 364.47937
32.94649 34.288506 364.47763
32.946266 34.53162 364.4759
32.94604 34.774746 364.47415
32.945816 35.01787 364.4724
32.924473 35.238365 364.2371
32.924248 35.48135 364.23532
32.92402 35.724346 364.23358
32.923794 35.967342 364.23184
32.92357 36.210342 364.2301
33.025585 36.429253 364.01575
33.025356 36.672108 364.01398
33.025127 36.914967 364.01224
33.131664 37.251698 363.78763
33.131454 37.49441 363.78586
33.131245 37.73713 363.78415
33.131035 37.97985 363.78238
33.13082 38.222572 363.78064
33.130608 38.465305 363.7789
33.1304 38.70804 363.77713
33.130188 38.950775 363.7754
33.12998 39.193516 363.77365
33.23175 39.410343 363.55988
33.23154 39.65294 363.5581
33.231327 39.89554 363.55634
33.231113 40.13815 363.5546
33.2309 40.38076 363.55286
33.230686 40.623375 363.55112
33.230473 40.865993 363.54938
33.230263 41.10862 363.5476
33.128075 41.378376 363.75793
33.12786 41.62116 363.75616
33.04673 41.91804 364.20013
33.04652 42.16113 364.19836
32.965183 42.459034 364.64334
32.98613 42.72959 364.87576
32.720203 43.11289 365.9867
31.698772 43.96883 369.81198
31.655735 44.33084 370.7541
31.653809 44.752533 372.18732
31.589628 45.089485 372.89648
31.61012 45.367817 373.13937
31.504322 45.64747 373.36145
31.545473 45.956326 373.85034
31.545261 46.205883 373.84863
31.545052 46.45545 373.84695
31.650537 46.673733 373.62082
31.650328 46.923145 373.6191
31.670889 47.203156 373.86288
31.670677 47.452732 373.86118
31.670465 47.702316 373.8595
31.649483 47.920845 373.61234
31.734028 48.10695 373.1416
31.844805 48.444878 372.90558
31.84461 48.693844 372.90387
31.928766 48.878635 372.43494
32.01271 49.062965 371.96716
32.012512 49.31132 371.96545
32.096245 49.494896 371.4989
32.20074 49.709927 371.27567
32.179558 49.925755 371.03168
32.283875 50.140255 370.80905
32.367 50.32223 370.3453
32.366802 50.569534 370.34363
32.470806 50.783226 370.12177
32.55354 50.964073 369.65973
32.553333 51.21092 369.65802
32.532013 51.424923 369.41614
32.51071 51.638657 369.17444
32.510506 51.885212 369.1727
32.510303 52.131767 369.17096
32.61389 52.34385 368.95062
32.61369 52.590263 368.94888
32.613483 52.83668 368.94717
32.509495 53.118034 369.16406
32.426426 53.433826 369.62155
32.32214 53.716095 369.83926
32.342953 53.997593 370.07837
32.15504 54.351147 370.75876
32.07118 54.669876 371.2202
32.091908 54.95304 371.46115
32.112656 55.236553 371.70233
32.02853 55.557198 372.16614
32.028336 55.805813 372.16446
32.15402 56.053253 372.18387
32.153824 56.301876 372.18216
32.153625 56.5505 372.18042
32.15343 56.79913 372.1787
32.153233 57.04777 372.17703
32.153038 57.29641 372.17532
32.15284 57.54505 372.17358
32.15264 57.7937 372.17188
32.152447 58.04235 372.17017
32.152252 58.29101 372.16846
32.152058 58.539677 372.16675
32.151855 58.788334 372.165
32.15166 59.037006 372.1633
32.151466 59.28568 372.16156
32.15127 59.534355 372.15985
32.25588 59.743576 371.93582
32.25568 59.99211 371.93408
32.25548 60.240635 371.93234
32.276352 60.527847 372.17422
32.276154 60.776546 372.1725
32.25489 60.98626 371.92722
32.359364 61.194443 371.70343
32.359165 61.442844 371.7017
32.46351 61.650616 371.4782
32.463306 61.89886 371.4765
32.56752 62.10622 371.25327
32.56732 62.354313 371.25156
32.650154 62.521465 370.78653
32.75406 62.728043 370.56412
32.821934 62.97428 369.84955
33.00771 63.09874 369.16898
33.21428 63.2627 368.7301
33.27425 63.387566 368.03275
33.47987 63.550655 367.59665
33.43654 63.71603 367.11975
33.641453 63.87832 366.68585
33.59801 64.042885 366.21118
33.80223 64.20437 365.7795
33.75868 64.36815 365.30704
33.83871 64.530174 364.8566
33.918545 64.69182 364.40726
33.896656 64.894875 364.1717
33.87479 65.09769 363.9363
33.976067 65.29892 363.72223
33.954178 65.50125 363.48743
34.15647 65.65979 363.06238
34.15627 65.9025 363.0606
31.561708 -59.112995 358.41156
31.643326 -58.57061 357.97842
31.764431 -58.331856 357.9957
31.744535 -58.062084 357.77005
31.845707 -57.791046 357.56357
31.845625 -57.55416 357.56192
31.845545 -57.31728 357.56027
31.84546 -57.08039 357.55862
31.845377 -56.843494 357.55698
31.845291 -56.606594 357.5553
31.926434 -56.305058 357.1259
31.926346 -56.068436 357.1242
31.926254 -55.831802 357.12253
32.02713 -55.56258 356.91684
32.02704 -55.326084 356.91516
32.007004 -55.058823 356.6908
32.10771 -54.790382 356.48557
32.107613 -54.554153 356.4839
32.107517 -54.31793 356.48224
32.107418 -54.0817 356.48056
32.107315 -53.84546 356.47888
32.107216 -53.609222 356.4772
32.107113 -53.37298 356.47556
32.10701 -53.13673 356.47388
32.106903 -52.900475 356.47223
32.126797 -52.693573 356.69305
32.12669 -52.457176 356.69138
32.126583 -52.22077 356.68973
32.126476 -51.984367 356.68805
32.126366 -51.74796 356.68637
32.12626 -51.511543 356.68472
32.126144 -51.275124 356.68304
32.146057 -51.067116 356.9041
32.145947 -50.830555 356.90244
32.165886 -50.62216 357.1238
32.26661 -50.356037 356.9181
32.246387 -50.0916 356.69363
32.24627 -49.855164 356.69196
32.346817 -49.589806 356.48672
32.3467 -49.353508 356.48505
32.326443 -49.08996 356.2611
32.34646 -48.880898 356.48172
32.346333 -48.64458 356.48004
32.346207 -48.408264 356.47836
32.34609 -48.171944 356.4767
32.34596 -47.935616 356.475
32.345833 -47.699287 356.47336
32.44626 -47.435368 356.26834
32.44613 -47.199177 356.2667
32.445995 -46.96298 356.265
32.546303 -46.699657 356.06027
32.544178 -46.345947 356.0467
32.54406 -46.109886 356.045
32.54394 -45.873817 356.04333
32.543827 -45.63775 356.04166
32.563976 -45.426765 356.26202
32.563858 -45.19055 356.26038
32.56374 -44.954327 356.2587
32.543343 -44.693428 356.03497
32.643536 -44.43162 355.83047
32.643414 -44.19567 355.82883
32.643284 -43.959717 355.82712
32.64316 -43.72376 355.82547
32.643032 -43.487797 355.8238
32.743107 -43.22686 355.61954
32.742977 -42.991035 355.6179
32.742847 -42.7552 355.61618
32.64251 -42.5439 355.81705
32.64238 -42.307915 355.8154
32.642246 -42.071926 355.81372
32.642113 -41.835934 355.812
32.641975 -41.599937 355.81033
32.641838 -41.363937 355.80865
32.6417 -41.12793 355.80695
32.641563 -40.891922 355.80527
32.641422 -40.65591 355.80356
32.64128 -40.41989 355.8019
32.74134 -40.160778 355.59772
32.7412 -39.924892 355.596
32.661205 -39.73358 356.01874
32.66106 -39.49741 356.01706
32.681282 -39.282745 356.2375
32.70153 -39.067825 356.4582
32.701385 -38.831367 356.4565
32.721657 -38.616055 356.67746
32.621002 -38.40153 356.8796
32.64125 -38.1857 357.10114
32.641106 -37.948807 357.09946
32.66137 -37.73257 357.32114
32.661224 -37.495533 357.3195
32.661076 -37.258484 357.3178
32.660923 -37.021435 357.31613
32.560055 -36.805523 357.519
32.559902 -36.56832 357.51733
32.55975 -36.331112 357.51562
32.559597 -36.093903 357.51398
32.559444 -35.85668 357.5123
32.559288 -35.619465 357.51062
32.57953 -35.40157 357.73294
32.680145 -35.14405 357.52643
32.67999 -34.906822 357.52475
32.679832 -34.66959 357.52304
32.679672 -34.432358 357.5214
32.659058 -34.176502 357.29596
32.6589 -33.9394 357.29428
32.658737 -33.70229 357.29257
32.65857 -33.46518 357.2909
32.678864 -33.24612 357.51297
32.6787 -33.008865 357.5113
32.678535 -32.7716 357.5096
32.678368 -32.534332 357.50793
32.6782 -32.29706 357.50623
32.678032 -32.05978 357.50452
32.778515 -31.804403 357.2983
32.77751 -31.449543 357.28494
32.77736 -31.212404 357.28326
32.777206 -30.975264 357.28162
32.777054 -30.738115 357.2799
32.776894 -30.500965 357.27823
32.776737 -30.263807 357.27655
32.77658 -30.026648 357.27484
32.776424 -29.789486 357.27316
32.796803 -29.568228 357.49527
32.796646 -29.33092 357.4936
32.796486 -29.093603 357.49188
32.796326 -28.856283 357.49023
32.79616 -28.618961 357.48853
32.796 -28.381634 357.48685
32.89641 -28.12846 357.28064
32.896248 -27.891266 357.27893
32.89608 -27.654072 357.27725
32.895916 -27.416876 357.27557
32.89575 -27.179672 357.27386
32.916203 -26.95685 357.49603
32.91603 -26.719496 357.4943
32.915863 -26.482143 357.49265
32.915695 -26.244787 357.49097
32.915524 -26.007423 357.48926
32.91535 -25.770056 357.48755
32.915176 -25.532686 357.48587
32.915005 -25.295311 357.4842
32.91483 -25.05793 357.48248
32.914654 -24.82055 357.4808
32.914482 -24.58316 357.4791
32.93495 -24.358639 357.7015
32.934776 -24.121105 357.69983
32.934597 -23.883564 357.69812
32.934418 -23.646023 357.69644
32.93424 -23.408476 357.69473
32.95474 -23.183115 357.91742
32.95456 -22.94542 357.91574
32.95438 -22.70772 357.91403
32.954197 -22.470018 357.91238
32.954014 -22.232311 357.91064
32.95383 -21.9946 357.90897
32.953648 -21.756887 357.9073
32.953465 -21.519167 357.90558
32.953278 -21.281445 357.9039
32.973793 -21.05466 358.12686
32.973606 -20.81679 358.12515
32.97342 -20.578917 358.12347
32.973232 -20.341036 358.12177
32.973045 -20.103151 358.1201
32.99359 -19.875526 358.34335
32.791664 -19.658873 358.7535
32.791477 -19.420546 358.75183
32.791286 -19.182213 358.7501
32.791092 -18.943874 358.7484
32.790905 -18.705536 358.74673
32.811367 -18.476646 358.97076
32.811172 -18.23816 358.9691
32.81098 -17.999664 358.96738
32.810787 -17.761168 358.96567
32.83128 -17.531572 359.19003
32.831085 -17.292927 359.18832
32.830887 -17.054276 359.18665
32.851402 -16.824116 359.41122
32.750015 -16.594152 359.61658
32.74982 -16.355202 359.6149
32.749622 -16.116247 359.61322
32.749424 -15.877289 359.61148
32.749226 -15.638326 359.60977
32.769714 -15.407028 359.835
32.790222 -15.175453 360.06042
32.790512 -14.8179455 360.04727
32.688934 -14.5863 360.25345
32.68875 -14.3468895 360.2517
32.60769 -14.121734 360.68607
32.60751 -13.882028 360.6844
32.607327 -13.642317 360.68268
32.60714 -13.402601 360.68097
32.627613 -13.169254 360.9075
32.648113 -12.935627 361.13428
32.54615 -12.702084 361.34174
32.545963 -12.461921 361.34006
32.54578 -12.221752 361.33835
32.566246 -11.987262 361.56567
32.56606 -11.7469425 361.564
32.38245 -11.523527 362.21176
32.382263 -11.282758 362.21008
32.402676 -11.047122 362.43848
32.40249 -10.806201 362.43677
32.320595 -10.575311 362.8765
32.32041 -10.334089 362.87482
32.23832 -10.102334 363.31555
32.2587 -9.865258 363.5454
32.17638 -9.6325 363.9878
32.073353 -9.394989 364.1987
32.01115 -9.165262 364.87585
31.907774 -8.92687 365.08786
31.90759 -8.684143 365.08615
31.741398 -8.456438 365.98145
31.76161 -8.216594 366.2146
31.657719 -7.9767118 366.42822
31.677898 -7.7362757 366.66193
31.573835 -7.4957876 366.8761
31.59399 -7.2547574 367.11038
31.614166 -7.013432 367.34494
31.50987 -6.7720346 367.5599
31.425741 -6.532819 368.01233
31.425554 -6.288104 368.01068
31.445673 -6.0455804 368.2464
31.445486 -5.8007083 368.24472
31.445297 -5.555832 368.24304
31.360928 -5.3146496 368.6971
31.38104 -5.0710716 368.93372
31.380852 -4.825731 368.93204
31.380665 -4.5803857 368.9304
31.38048 -4.335037 368.92874
31.380291 -4.089683 368.9271
31.380098 -3.8443248 368.9254
31.37991 -3.5989623 368.92374
31.400043 -3.3541656 369.16064
31.420206 -3.109067 369.39786
31.420013 -2.8633933 369.3962
31.315033 -2.6179605 369.61374
31.314842 -2.3721228 369.6121
31.209736 -2.126215 369.82986
31.209543 -1.8802134 369.8282
31.229616 -1.6337322 370.06625
31.229422 -1.3875723 370.06458
31.249521 -1.1406323 370.30295
31.249327 -0.8943137 370.3013
31.249134 -0.64799076 370.29968
31.24894 -0.40166327 370.298
31.269058 -0.15395524 370.53665
31.268862 0.092531055 370.535
31.163471 0.3406518 370.7539
31.163277 0.5873031 370.75226
31.077991 0.83788866 371.21268
31.077797 1.0848557 371.21103
31.097857 1.3341162 371.4509
31.097662 1.5812432 371.44925
30.991913 1.8309555 371.66928
30.991716 2.0782487 371.6676
30.99152 2.3255455 371.666
31.031792 2.5789526 372.14883
31.031593 2.8265612 372.1472
30.925613 3.0775542 372.36813
30.925417 3.32533 372.36646
30.925217 3.5731094 372.3648
30.92502 3.8208938 372.36316
30.85926 4.08066 373.0713
30.859064 4.3289156 373.06967
30.858862 4.5771747 373.068
30.752522 4.829946 373.29004
30.752321 5.078373 373.2884
30.77228 5.3315616 373.53098
30.685875 5.590067 373.99844
30.685675 5.838972 373.9968
30.685476 6.0878816 373.99515
30.725588 6.3475776 374.484
30.72539 6.5968037 374.4824
30.618574 6.8518524 374.7062
30.618372 7.101246 374.70456
30.61817 7.350645 374.7029
30.65827 7.6124105 375.19366
30.551214 7.8686085 375.4184
30.551016 8.118489 375.41678
30.550814 8.368375 375.4151
30.463703 8.632064 375.8874
30.463505 8.882274 375.88577
30.483397 9.139632 376.13165
30.483194 9.390005 376.13
30.482994 9.640383 376.12836
30.482788 9.890765 376.1267
30.502708 10.148927 376.373
30.395231 10.407611 376.59918
30.39503 10.658323 376.59753
30.502098 10.900579 376.36807
30.52204 11.159545 376.61462
30.521833 11.410264 376.61298
30.5418 11.669717 376.85986
30.541594 11.920601 376.85822
30.541391 12.171491 376.8566
30.648436 12.41294 376.62677
30.648228 12.663677 376.62515
30.648022 12.914416 376.6235
30.647812 13.165162 376.6219
30.647604 13.415912 376.62024
30.647394 13.666666 376.61862
30.647184 13.917424 376.61697
30.646976 14.168189 376.61536
30.646765 14.418957 376.6137
30.626328 14.659146 376.36386
30.626114 14.909768 376.3622
30.625904 15.160393 376.36057
30.62569 15.411022 376.35892
30.735584 15.772948 376.11804
30.735388 16.023422 376.11642
30.71493 16.262342 375.86716
30.82159 16.500616 375.63852
30.928125 16.73859 375.41025
30.907572 16.976627 375.16187
30.907373 17.22649 375.1602
30.993328 17.451458 374.68637
31.079067 17.675863 374.21368
31.164589 17.89971 373.74222
31.35569 18.11 373.04813
32.239105 18.203068 370.32285
32.405476 18.398169 369.40225
32.363297 18.618614 368.92282
32.446 18.838116 368.46454
32.4248 19.070496 368.2249
32.403625 19.302599 367.98553
32.507042 19.534004 367.76663
32.48584 19.765549 367.52786
32.485615 20.01037 367.52615
32.46443 20.241491 367.2876
32.46421 20.486174 367.28592
32.463985 20.730858 367.2842
32.46376 20.975548 367.28253
32.463535 21.220242 367.28085
32.56671 21.450052 367.06277
32.5455 21.680044 366.8248
32.630928 22.014118 366.3605
32.63072 22.25822 366.3588
32.733555 22.486824 366.14185
32.712296 22.715643 365.905
32.896576 22.912704 365.23978
32.896362 23.156073 365.2381
32.998722 23.383429 365.0225
32.977352 23.61102 364.78702
33.07954 23.837822 364.57196
33.181606 24.064344 364.35718
33.13893 24.275122 363.88974
33.138714 24.517622 363.888
33.138493 24.760124 363.8863
33.138275 25.002634 363.88458
33.03588 25.262272 364.09537
33.035664 25.50494 364.09366
33.035442 25.74761 364.09195
33.056393 26.007332 364.32333
33.05617 26.250156 364.32162
33.05595 26.492987 364.3199
33.15795 26.717768 364.10544
33.259827 26.942272 363.8912
33.259605 27.184813 363.8895
33.25938 27.427357 363.88776
33.25916 27.66991 363.88608
33.280224 27.930643 364.11713
33.28 28.173346 364.11542
33.177635 28.435165 364.32648
33.17741 28.67803 364.32477
33.15595 28.902107 364.09
33.155724 29.144829 364.08826
33.155502 29.38756 364.08655
33.176514 29.64952 364.31793
33.17629 29.892405 364.3162
33.176064 30.13529 364.31445
33.175842 30.378185 364.31277
33.175613 30.621078 364.31104
33.09435 30.904633 364.756
33.115356 31.168016 364.98822
33.115135 31.411371 364.98654
33.114914 31.654728 364.98483
33.114685 31.898087 364.9831
33.216812 32.119995 364.76785
33.216587 32.363213 364.7661
33.21636 32.606434 364.76437
33.21613 32.84966 364.76266
33.215904 33.09289 364.76096
33.215675 33.336124 364.75925
33.21545 33.579365 364.75754
33.215225 33.82261 364.75583
33.214996 34.065857 364.75412
33.214767 34.309105 364.7524
33.316757 34.52941 364.53738
33.316532 34.772522 364.53568
33.3163 35.015633 364.53394
33.31607 35.258747 364.53223
33.417934 35.47834 364.31747
33.417706 35.721313 364.31573
33.417473 35.96429 364.31406
33.421806 36.325783 364.30176
33.421593 36.56876 364.30005
33.421383 36.811745 364.29834
33.52313 37.030247 364.08383
33.522915 37.27309 364.08212
33.5227 37.515934 364.0804
33.522488 37.758785 364.0787
33.522274 38.00164 364.077
33.500614 38.22012 363.84235
33.5004 38.462837 363.84064
33.500187 38.705555 363.8389
33.49997 38.94828 363.83716
33.499756 39.19101 363.83545
33.601322 39.40781 363.62155
33.601105 39.650394 363.6198
33.600887 39.892982 363.61807
33.600674 40.13558 363.61636
33.49868 40.404713 363.8268
33.498466 40.647465 363.8251
33.60002 40.863388 363.61118
33.599804 41.105995 363.60947
33.59959 41.34861 363.60773
33.497604 41.61852 363.8182
33.497383 41.86129 363.81647
33.416676 42.15845 364.26044
33.335766 42.456337 364.70547
33.35694 42.72687 364.93793
33.194695 43.08176 365.8342
32.371223 43.724014 368.969
31.885921 44.30041 370.55463
32.010727 44.720726 372.0069
32.073345 45.056396 372.73596
31.98887 45.364876 373.2021
31.988657 45.613945 373.2004
32.009407 45.892754 373.4435
32.00919 46.141983 373.44183
32.008976 46.391224 373.44016
31.924261 46.70198 373.90805
31.92405 46.951538 373.9064
32.03483 47.290787 373.66928
32.13997 47.508377 373.44336
32.139774 47.757626 373.4417
32.139576 48.006878 373.44
32.139378 48.256138 373.43835
32.118145 48.47407 373.19196
32.32813 48.658157 372.7432
32.3068 48.87544 372.49765
32.41145 49.091362 372.27316
32.49475 49.275307 371.80594
32.49455 49.523495 371.80426
32.577644 49.706676 371.3382
32.660534 49.889412 370.87332
32.660328 50.136993 370.87167
32.743004 50.318966 370.40787
32.84679 50.53279 370.18594
32.825264 50.747467 369.94357
32.825058 50.99445 369.94193
32.803547 51.20871 369.69977
32.9071 51.421597 369.47867
33.01053 51.634216 369.25787
33.010323 51.880753 369.2562
33.01011 52.127296 369.2545
32.988525 52.340492 369.01324
32.86343 52.588028 368.99072
32.88453 52.868095 369.22867
32.88432 53.114655 369.22693
32.78042 53.396374 369.44427
32.697605 53.712685 369.9023
32.593407 53.995308 370.12045
32.510227 54.31299 370.5803
